# .PCD v.7 - Point Cloud Data file format
VERSION .7
FIELDS x y z
SIZE 4 4 4
TYPE F F F
COUNT 1 1 1
WIDTH 1942
HEIGHT 1
VIEWPOINT 1.3865 -0.9425 0.5699 -0.3316 0.372 0.6364 -0.5888
POINTS 1942
DATA ascii
0.730079 0.168039 3.4604
0.743577 0.169602 3.4926
0.750282 0.169602 3.4926
0.756987 0.169602 3.4926
0.763692 0.169602 3.4926
0.770397 0.169602 3.4926
0.777102 0.169602 3.4926
0.783807 0.169602 3.4926
0.790512 0.169602 3.4926
0.797217 0.169602 3.4926
0.803922 0.169602 3.4926
0.884381 0.169602 3.4926
0.891086 0.169602 3.4926
0.897791 0.169602 3.4926
0.904496 0.169602 3.4926
0.911201 0.169602 3.4926
0.944725 0.169602 3.4926
0.95143 0.169602 3.4926
0.958135 0.169602 3.4926
0.96484 0.169602 3.4926
0.971545 0.169602 3.4926
0.97825 0.169602 3.4926
0.975874 0.168039 3.4604
0.982517 0.168039 3.4604
0.98916 0.168039 3.4604
0.995803 0.168039 3.4604
1.00245 0.168039 3.4604
1.00909 0.168039 3.4604
1.01573 0.168039 3.4604
1.02238 0.168039 3.4604
1.01938 0.166465 3.428
1.02597 0.166465 3.428
1.03255 0.166465 3.428
1.03913 0.166465 3.428
1.04571 0.166465 3.428
1.06223 0.168039 3.4604
1.06888 0.168039 3.4604
1.07552 0.168039 3.4604
1.08216 0.168039 3.4604
1.07861 0.166465 3.428
1.08519 0.166465 3.428
1.10209 0.168039 3.4604
1.11905 0.169602 3.4926
1.12576 0.169602 3.4926
1.13246 0.169602 3.4926
1.13917 0.169602 3.4926
1.15928 0.169602 3.4926
1.16599 0.169602 3.4926
1.17269 0.169602 3.4926
1.1794 0.169602 3.4926
1.1861 0.169602 3.4926
1.19281 0.169602 3.4926
1.19951 0.169602 3.4926
1.20622 0.169602 3.4926
1.21292 0.169602 3.4926
1.22633 0.169602 3.4926
0.820498 0.110456 2.2746
0.824865 0.110456 2.2746
0.824127 0.109776 2.2606
0.828467 0.109776 2.2606
0.832807 0.109776 2.2606
0.831962 0.109096 2.2466
0.836275 0.109096 2.2466
0.835724 0.108465 2.2336
0.840012 0.108465 2.2336
0.8443 0.108465 2.2336
0.848588 0.108465 2.2336
0.84753 0.107785 2.2196
0.851791 0.107785 2.2196
0.856052 0.107785 2.2196
0.860313 0.107785 2.2196
0.859589 0.107163 2.2068
0.863825 0.107163 2.2068
0.868062 0.107163 2.2068
0.872298 0.107163 2.2068
0.876535 0.107163 2.2068
0.880771 0.107163 2.2068
0.885008 0.107163 2.2068
0.889244 0.107163 2.2068
0.898663 0.107785 2.2196
0.902924 0.107785 2.2196
0.907185 0.107785 2.2196
0.90619 0.107163 2.2068
0.910427 0.107163 2.2068
0.914663 0.107163 2.2068
0.9189 0.107163 2.2068
0.923136 0.107163 2.2068
0.927373 0.107163 2.2068
1.48782 0.169602 3.4926
1.48075 0.168039 3.4604
1.50123 0.169602 3.4926
1.50794 0.169602 3.4926
1.51464 0.169602 3.4926
1.52805 0.169602 3.4926
1.55487 0.169602 3.4926
1.56158 0.169602 3.4926
1.55383 0.168039 3.4604
0.964758 0.101724 2.0948
0.957865 0.100578 2.0712
0.961842 0.100578 2.0712
0.965818 0.100578 2.0712
0.969794 0.100578 2.0712
0.968693 0.100054 2.0604
0.972648 0.100054 2.0604
0.976604 0.100054 2.0604
0.974943 0.0994809 2.0486
0.973715 0.0989565 2.0378
0.971967 0.0983834 2.026
0.975856 0.0983834 2.026
1.46215 0.146245 3.0116
1.46793 0.146245 3.0116
1.47371 0.146245 3.0116
1.4679 0.145099 2.988
1.47364 0.145099 2.988
1.47937 0.145099 2.988
1.47278 0.143894 2.9632
1.45542 0.141651 2.917
1.4497 0.140553 2.8944
1.45526 0.140553 2.8944
1.44941 0.139456 2.8718
1.43314 0.137368 2.8288
1.43857 0.137368 2.8288
1.444 0.137368 2.8288
1.43836 0.136319 2.8072
1.44375 0.136319 2.8072
1.43799 0.13527 2.7856
1.4222 0.133289 2.7448
1.42746 0.133289 2.7448
1.42209 0.132298 2.7244
1.42732 0.132298 2.7244
1.41214 0.130414 2.6856
1.40706 0.129472 2.6662
1.41218 0.129472 2.6662
1.4173 0.129472 2.6662
1.41207 0.12853 2.6468
1.41715 0.12853 2.6468
1.42223 0.12853 2.6468
1.42731 0.12853 2.6468
1.43239 0.12853 2.6468
1.43747 0.12853 2.6468
1.44255 0.12853 2.6468
1.44764 0.12853 2.6468
1.45272 0.12853 2.6468
1.4578 0.12853 2.6468
1.46288 0.12853 2.6468
1.45787 0.127646 2.6286
1.46291 0.127646 2.6286
1.46796 0.127646 2.6286
-1.96522 0.176306 3.4926
-1.95851 0.176306 3.4926
-1.93381 0.17468 3.4604
-1.92717 0.17468 3.4604
-1.92053 0.17468 3.4604
-1.91388 0.17468 3.4604
-1.88938 0.173045 3.428
-1.8828 0.173045 3.428
-1.89395 0.17468 3.4604
-1.88731 0.17468 3.4604
-1.86464 0.176306 3.4926
-1.84081 0.17468 3.4604
-1.83416 0.17468 3.4604
-1.82752 0.17468 3.4604
-1.82088 0.17468 3.4604
-1.79725 0.173045 3.428
-1.79067 0.173045 3.428
-1.80095 0.17468 3.4604
-1.79431 0.17468 3.4604
-1.78766 0.17468 3.4604
-1.76434 0.173045 3.428
-1.78418 0.176306 3.4926
-1.75736 0.176306 3.4926
-1.75066 0.176306 3.4926
-1.72787 0.17468 3.4604
-1.72123 0.17468 3.4604
-1.73054 0.176306 3.4926
-1.70795 0.17468 3.4604
-1.7013 0.17468 3.4604
-1.71043 0.176306 3.4926
-1.70372 0.176306 3.4926
-1.69702 0.176306 3.4926
-1.69031 0.176306 3.4926
-1.68361 0.176306 3.4926
-1.6769 0.176306 3.4926
-1.6702 0.176306 3.4926
-1.51599 0.176306 3.4926
-1.50928 0.176306 3.4926
-1.48917 0.176306 3.4926
-1.48246 0.176306 3.4926
-1.47576 0.176306 3.4926
-1.46905 0.176306 3.4926
-1.44886 0.17468 3.4604
-1.44222 0.17468 3.4604
-1.43558 0.17468 3.4604
-1.44223 0.176306 3.4926
-1.28131 0.176306 3.4926
-1.27461 0.176306 3.4926
-1.14992 0.17468 3.4604
-1.15392 0.176306 3.4926
-1.13664 0.17468 3.4604
-1.12999 0.17468 3.4604
-1.1271 0.176306 3.4926
-1.12039 0.176306 3.4926
-1.11369 0.176306 3.4926
-1.10698 0.176306 3.4926
-1.02653 0.176306 3.4926
-1.01982 0.176306 3.4926
-1.01312 0.176306 3.4926
-1.00641 0.176306 3.4926
-0.999705 0.176306 3.4926
-0.993001 0.176306 3.4926
-0.986295 0.176306 3.4926
-0.979591 0.176306 3.4926
-0.939361 0.176306 3.4926
-0.932656 0.176306 3.4926
-0.925951 0.176306 3.4926
-0.919246 0.176306 3.4926
-0.912541 0.176306 3.4926
-0.905836 0.176306 3.4926
-0.899131 0.176306 3.4926
-0.892426 0.176306 3.4926
-0.885722 0.176306 3.4926
-0.879017 0.176306 3.4926
-0.872312 0.176306 3.4926
-0.865607 0.176306 3.4926
-0.858902 0.176306 3.4926
-0.838787 0.176306 3.4926
-0.832082 0.176306 3.4926
-0.825377 0.176306 3.4926
-0.818672 0.176306 3.4926
-0.811967 0.176306 3.4926
-0.797838 0.17468 3.4604
-0.791195 0.17468 3.4604
-0.784552 0.17468 3.4604
-0.777909 0.17468 3.4604
-0.771266 0.17468 3.4604
-0.764623 0.17468 3.4604
-0.75798 0.17468 3.4604
-0.751336 0.17468 3.4604
-0.751623 0.176306 3.4926
-0.744918 0.176306 3.4926
-0.731407 0.17468 3.4604
-0.724764 0.17468 3.4604
-0.724803 0.176306 3.4926
-0.718098 0.176306 3.4926
-0.704688 0.176306 3.4926
-0.697983 0.176306 3.4926
-0.691278 0.176306 3.4926
-0.684574 0.176306 3.4926
-0.671619 0.17468 3.4604
-0.664976 0.17468 3.4604
-0.652169 0.173045 3.428
-0.65169 0.17468 3.4604
-0.651049 0.176306 3.4926
-0.644344 0.176306 3.4926
-0.637639 0.176306 3.4926
-0.630934 0.176306 3.4926
-0.624229 0.176306 3.4926
-0.617524 0.176306 3.4926
-0.610819 0.176306 3.4926
-0.604114 0.176306 3.4926
-0.584 0.176306 3.4926
-0.54377 0.176306 3.4926
-0.537065 0.176306 3.4926
-0.53036 0.176306 3.4926
-0.523655 0.176306 3.4926
-0.51695 0.176306 3.4926
-0.50354 0.176306 3.4926
-0.483426 0.176306 3.4926
-0.470016 0.176306 3.4926
-0.463311 0.176306 3.4926
-0.456606 0.176306 3.4926
-0.449901 0.176306 3.4926
-0.443196 0.176306 3.4926
-0.436491 0.176306 3.4926
-0.429786 0.176306 3.4926
-0.423081 0.176306 3.4926
-0.402966 0.176306 3.4926
-0.396261 0.176306 3.4926
-0.389556 0.176306 3.4926
-0.134769 0.176306 3.4926
-0.0878345 0.176306 3.4926
-0.0744246 0.176306 3.4926
-0.0677197 0.176306 3.4926
-0.0610147 0.176306 3.4926
-0.0543098 0.176306 3.4926
-0.0476049 0.176306 3.4926
-0.0408999 0.176306 3.4926
-0.034195 0.176306 3.4926
-0.0274901 0.176306 3.4926
-0.0207851 0.176306 3.4926
-0.00737526 0.176306 3.4926
-0.00067033 0.176306 3.4926
0.0060346 0.176306 3.4926
0.0127395 0.176306 3.4926
0.0194445 0.176306 3.4926
0.0261494 0.176306 3.4926
0.0328543 0.176306 3.4926
0.0391946 0.17468 3.4604
0.0458377 0.17468 3.4604
0.0524808 0.17468 3.4604
0.0596741 0.176306 3.4926
0.066379 0.176306 3.4926
0.0730839 0.176306 3.4926
0.0797889 0.176306 3.4926
0.0864938 0.176306 3.4926
0.0931987 0.176306 3.4926
0.0989826 0.17468 3.4604
0.105626 0.17468 3.4604
0.112269 0.17468 3.4604
0.118912 0.17468 3.4604
0.126723 0.176306 3.4926
0.133428 0.176306 3.4926
0.138841 0.17468 3.4604
0.145484 0.17468 3.4604
0.152128 0.17468 3.4604
0.158771 0.17468 3.4604
0.165414 0.17468 3.4604
0.172057 0.17468 3.4604
0.1787 0.17468 3.4604
0.185343 0.17468 3.4604
0.191986 0.17468 3.4604
0.198629 0.17468 3.4604
0.205272 0.17468 3.4604
0.211916 0.17468 3.4604
0.216512 0.173045 3.428
0.223093 0.173045 3.428
0.229674 0.173045 3.428
0.236255 0.173045 3.428
0.242836 0.173045 3.428
0.249417 0.173045 3.428
0.253668 0.17147 3.3968
0.262579 0.173045 3.428
0.26916 0.173045 3.428
0.275741 0.173045 3.428
0.282322 0.173045 3.428
0.286273 0.17147 3.3968
0.295483 0.173045 3.428
0.302064 0.173045 3.428
0.308645 0.173045 3.428
0.312357 0.17147 3.3968
0.318878 0.17147 3.3968
0.325399 0.17147 3.3968
0.33192 0.17147 3.3968
0.34155 0.173045 3.428
0.348131 0.173045 3.428
0.354712 0.173045 3.428
0.361293 0.173045 3.428
0.367873 0.173045 3.428
0.377994 0.17468 3.4604
0.384637 0.17468 3.4604
0.39128 0.17468 3.4604
0.397923 0.17468 3.4604
0.404566 0.17468 3.4604
0.411209 0.17468 3.4604
0.417852 0.17468 3.4604
0.424495 0.17468 3.4604
0.431138 0.17468 3.4604
0.437782 0.17468 3.4604
0.444425 0.17468 3.4604
0.451068 0.17468 3.4604
0.457711 0.17468 3.4604
0.464354 0.17468 3.4604
0.470997 0.17468 3.4604
0.47764 0.17468 3.4604
0.484283 0.17468 3.4604
0.490927 0.17468 3.4604
0.49757 0.17468 3.4604
0.504213 0.17468 3.4604
0.510856 0.17468 3.4604
0.517499 0.17468 3.4604
0.524142 0.17468 3.4604
0.530785 0.17468 3.4604
0.537428 0.17468 3.4604
0.544071 0.17468 3.4604
0.550715 0.17468 3.4604
0.557358 0.17468 3.4604
0.564001 0.17468 3.4604
0.570644 0.17468 3.4604
0.577287 0.17468 3.4604
0.58393 0.17468 3.4604
0.590573 0.17468 3.4604
0.597216 0.17468 3.4604
0.603859 0.17468 3.4604
0.610503 0.17468 3.4604
0.617146 0.17468 3.4604
0.623789 0.17468 3.4604
0.630432 0.17468 3.4604
0.637075 0.17468 3.4604
0.643718 0.17468 3.4604
0.650361 0.17468 3.4604
0.650853 0.173045 3.428
0.657434 0.173045 3.428
0.657971 0.17147 3.3968
0.670596 0.173045 3.428
0.671013 0.17147 3.3968
0.677534 0.17147 3.3968
0.684055 0.17147 3.3968
0.690576 0.17147 3.3968
0.7035 0.173045 3.428
0.716792 0.17468 3.4604
0.716662 0.173045 3.428
0.723243 0.173045 3.428
0.736722 0.17468 3.4604
0.743365 0.17468 3.4604
0.750008 0.17468 3.4604
0.749567 0.173045 3.428
0.756148 0.173045 3.428
0.762728 0.173045 3.428
0.769309 0.173045 3.428
0.77589 0.173045 3.428
0.782471 0.173045 3.428
0.789052 0.173045 3.428
0.810627 0.176306 3.4926
0.830741 0.176306 3.4926
0.837446 0.176306 3.4926
0.844151 0.176306 3.4926
0.864266 0.176306 3.4926
0.870971 0.176306 3.4926
0.877676 0.176306 3.4926
0.876227 0.17468 3.4604
0.88287 0.17468 3.4604
0.889514 0.17468 3.4604
0.896157 0.17468 3.4604
0.9028 0.17468 3.4604
0.917906 0.176306 3.4926
0.916086 0.17468 3.4604
0.922729 0.17468 3.4604
0.93802 0.176306 3.4926
0.918812 0.17147 3.3968
0.933832 0.173045 3.428
0.940413 0.173045 3.428
0.946994 0.173045 3.428
0.953575 0.173045 3.428
0.960156 0.173045 3.428
0.957938 0.17147 3.3968
0.964459 0.17147 3.3968
0.97098 0.17147 3.3968
0.977501 0.17147 3.3968
0.984022 0.17147 3.3968
0.990543 0.17147 3.3968
0.997064 0.17147 3.3968
1.00359 0.17147 3.3968
1.01011 0.17147 3.3968
1.01663 0.17147 3.3968
1.03255 0.173045 3.428
1.02967 0.17147 3.3968
1.03619 0.17147 3.3968
1.05229 0.173045 3.428
1.05887 0.173045 3.428
1.06545 0.173045 3.428
1.07203 0.173045 3.428
1.0688 0.17147 3.3968
1.07532 0.17147 3.3968
1.09177 0.173045 3.428
1.10874 0.17468 3.4604
1.11538 0.17468 3.4604
1.12202 0.17468 3.4604
1.13917 0.176306 3.4926
1.14587 0.176306 3.4926
1.15258 0.176306 3.4926
1.1486 0.17468 3.4604
1.15524 0.17468 3.4604
1.151 0.173045 3.428
1.15758 0.173045 3.428
1.16416 0.173045 3.428
1.17075 0.173045 3.428
1.17733 0.173045 3.428
1.18391 0.173045 3.428
1.19049 0.173045 3.428
1.19707 0.173045 3.428
1.21503 0.17468 3.4604
1.22167 0.17468 3.4604
0.820498 0.114821 2.2746
0.819788 0.114115 2.2606
0.824127 0.114115 2.2606
0.828467 0.114115 2.2606
0.832807 0.114115 2.2606
0.831962 0.113408 2.2466
0.836275 0.113408 2.2466
0.835724 0.112752 2.2336
0.840012 0.112752 2.2336
0.8443 0.112752 2.2336
0.848588 0.112752 2.2336
0.84753 0.112045 2.2196
0.851791 0.112045 2.2196
0.856052 0.112045 2.2196
0.855352 0.111399 2.2068
0.859589 0.111399 2.2068
0.863825 0.111399 2.2068
0.868062 0.111399 2.2068
0.872298 0.111399 2.2068
0.876535 0.111399 2.2068
0.880771 0.111399 2.2068
0.885008 0.111399 2.2068
0.889244 0.111399 2.2068
0.893481 0.111399 2.2068
0.897717 0.111399 2.2068
0.901954 0.111399 2.2068
0.90619 0.111399 2.2068
0.910427 0.111399 2.2068
0.914663 0.111399 2.2068
0.9189 0.111399 2.2068
0.923136 0.111399 2.2068
0.927373 0.111399 2.2068
1.46746 0.17468 3.4604
1.47411 0.17468 3.4604
1.46689 0.173045 3.428
1.47347 0.173045 3.428
1.49404 0.17468 3.4604
1.48663 0.173045 3.428
1.50732 0.17468 3.4604
1.51397 0.17468 3.4604
1.53476 0.176306 3.4926
1.52725 0.17468 3.4604
1.5339 0.17468 3.4604
1.54054 0.17468 3.4604
1.54718 0.17468 3.4604
1.53928 0.173045 3.428
1.56047 0.17468 3.4604
1.56711 0.17468 3.4604
0.959324 0.105149 2.083
0.957865 0.104554 2.0712
0.961842 0.104554 2.0712
0.965818 0.104554 2.0712
0.964737 0.104009 2.0604
0.968693 0.104009 2.0604
0.972648 0.104009 2.0604
0.97101 0.103413 2.0486
0.974943 0.103413 2.0486
0.973715 0.102868 2.0378
0.977628 0.102868 2.0378
0.975856 0.102272 2.026
1.46836 0.153277 3.0364
1.46215 0.152025 3.0116
1.46793 0.152025 3.0116
1.47371 0.152025 3.0116
1.4679 0.150834 2.988
1.47364 0.150834 2.988
1.47937 0.150834 2.988
1.47278 0.149582 2.9632
1.45542 0.14725 2.917
1.4497 0.146109 2.8944
1.45526 0.146109 2.8944
1.46081 0.146109 2.8944
1.44398 0.143878 2.8502
1.43857 0.142797 2.8288
1.444 0.142797 2.8288
1.43836 0.141707 2.8072
1.43264 0.140617 2.7856
1.42746 0.139587 2.7652
1.4222 0.138557 2.7448
1.42746 0.138557 2.7448
1.42209 0.137527 2.7244
1.42732 0.137527 2.7244
1.41214 0.135569 2.6856
1.4173 0.135569 2.6856
1.41218 0.134589 2.6662
1.4173 0.134589 2.6662
1.41207 0.13361 2.6468
1.41715 0.13361 2.6468
1.42223 0.13361 2.6468
1.42731 0.13361 2.6468
1.42254 0.132691 2.6286
1.43747 0.13361 2.6468
1.44255 0.13361 2.6468
1.44764 0.13361 2.6468
1.45272 0.13361 2.6468
1.4578 0.13361 2.6468
1.46288 0.13361 2.6468
1.45787 0.132691 2.6286
1.47304 0.13361 2.6468
1.47812 0.13361 2.6468
-1.95374 0.181322 3.4604
-1.96522 0.183009 3.4926
-1.94045 0.181322 3.4604
-1.9157 0.179624 3.428
-1.90912 0.179624 3.428
-1.90254 0.179624 3.428
-1.89596 0.179624 3.428
-1.88938 0.179624 3.428
-1.8828 0.179624 3.428
-1.89395 0.181322 3.4604
-1.88731 0.181322 3.4604
-1.89817 0.183009 3.4926
-1.89146 0.183009 3.4926
-1.88476 0.183009 3.4926
-1.86074 0.181322 3.4604
-1.85409 0.181322 3.4604
-1.8135 0.17799 3.3968
-1.80697 0.17799 3.3968
-1.80045 0.17799 3.3968
-1.79393 0.17799 3.3968
-1.80383 0.179624 3.428
-1.76516 0.176418 3.3668
-1.7587 0.176418 3.3668
-1.75224 0.176418 3.3668
-1.76133 0.17799 3.3968
-1.75481 0.17799 3.3968
-1.74829 0.17799 3.3968
-1.75776 0.179624 3.428
-1.75118 0.179624 3.428
-1.7446 0.179624 3.428
-1.77077 0.183009 3.4926
-1.7478 0.181322 3.4604
-1.72486 0.179624 3.428
-1.75066 0.183009 3.4926
-1.7117 0.179624 3.428
-1.72123 0.181322 3.4604
-1.69853 0.179624 3.428
-1.69195 0.179624 3.428
-1.68537 0.179624 3.428
-1.69466 0.181322 3.4604
-1.68802 0.181322 3.4604
-1.68137 0.181322 3.4604
-1.67473 0.181322 3.4604
-1.65247 0.179624 3.428
-1.66144 0.181322 3.4604
-1.6548 0.181322 3.4604
-1.62997 0.183009 3.4926
-1.61656 0.183009 3.4926
-1.58008 0.179624 3.428
-1.60315 0.183009 3.4926
-1.59644 0.183009 3.4926
-1.58974 0.183009 3.4926
-1.58303 0.183009 3.4926
-1.57633 0.183009 3.4926
-1.5428 0.183009 3.4926
-1.5361 0.183009 3.4926
-1.51529 0.181322 3.4604
-1.50865 0.181322 3.4604
-1.50201 0.181322 3.4604
-1.49537 0.181322 3.4604
-1.48872 0.181322 3.4604
-1.48208 0.181322 3.4604
-1.44832 0.17799 3.3968
-1.4418 0.17799 3.3968
-1.44846 0.179624 3.428
-1.44188 0.179624 3.428
-1.44886 0.181322 3.4604
-1.42872 0.179624 3.428
-1.43558 0.181322 3.4604
-1.44223 0.183009 3.4926
-1.43553 0.183009 3.4926
-1.42882 0.183009 3.4926
-1.42212 0.183009 3.4926
-1.41541 0.183009 3.4926
-1.40871 0.183009 3.4926
-1.402 0.183009 3.4926
-1.36177 0.183009 3.4926
-1.35507 0.183009 3.4926
-1.34836 0.183009 3.4926
-1.32929 0.181322 3.4604
-1.32825 0.183009 3.4926
-1.32154 0.183009 3.4926
-1.31484 0.183009 3.4926
-1.30813 0.183009 3.4926
-1.28943 0.181322 3.4604
-1.28279 0.181322 3.4604
-1.27614 0.181322 3.4604
-1.2695 0.181322 3.4604
-1.26286 0.181322 3.4604
-1.25621 0.181322 3.4604
-1.24957 0.181322 3.4604
-1.24293 0.181322 3.4604
-1.23628 0.181322 3.4604
-1.22964 0.181322 3.4604
-1.23438 0.183009 3.4926
-1.22767 0.183009 3.4926
-1.22097 0.183009 3.4926
-1.20307 0.181322 3.4604
-1.19415 0.183009 3.4926
-1.18744 0.183009 3.4926
-1.18074 0.183009 3.4926
-1.16321 0.181322 3.4604
-1.15657 0.181322 3.4604
-1.13916 0.179624 3.428
-1.13258 0.179624 3.428
-1.11575 0.17799 3.3968
-1.10923 0.17799 3.3968
-1.12335 0.181322 3.4604
-1.10625 0.179624 3.428
-1.09967 0.179624 3.428
-1.10342 0.181322 3.4604
-1.09678 0.181322 3.4604
-1.10028 0.183009 3.4926
-1.08349 0.181322 3.4604
-1.07685 0.181322 3.4604
-1.03323 0.183009 3.4926
-1.02653 0.183009 3.4926
-1.01982 0.183009 3.4926
-1.01312 0.183009 3.4926
-1.00641 0.183009 3.4926
-0.990489 0.181322 3.4604
-0.993001 0.183009 3.4926
-0.986295 0.183009 3.4926
-0.970559 0.181322 3.4604
-0.963916 0.181322 3.4604
-0.957273 0.181322 3.4604
-0.959476 0.183009 3.4926
-0.952771 0.183009 3.4926
-0.946066 0.183009 3.4926
-0.939361 0.183009 3.4926
-0.924057 0.181322 3.4604
-0.917414 0.181322 3.4604
-0.910771 0.181322 3.4604
-0.904128 0.181322 3.4604
-0.897485 0.181322 3.4604
-0.882501 0.179624 3.428
-0.884199 0.181322 3.4604
-0.877556 0.181322 3.4604
-0.862758 0.179624 3.428
-0.864269 0.181322 3.4604
-0.857626 0.181322 3.4604
-0.850983 0.181322 3.4604
-0.84434 0.181322 3.4604
-0.837697 0.181322 3.4604
-0.823273 0.179624 3.428
-0.824411 0.181322 3.4604
-0.810111 0.179624 3.428
-0.80353 0.179624 3.428
-0.796949 0.179624 3.428
-0.790368 0.179624 3.428
-0.783787 0.179624 3.428
-0.777206 0.179624 3.428
-0.777909 0.181322 3.4604
-0.771266 0.181322 3.4604
-0.757463 0.179624 3.428
-0.750883 0.179624 3.428
-0.744302 0.179624 3.428
-0.731006 0.17799 3.3968
-0.73114 0.179624 3.428
-0.724559 0.179624 3.428
-0.717978 0.179624 3.428
-0.711397 0.179624 3.428
-0.711478 0.181322 3.4604
-0.711393 0.183009 3.4926
-0.704688 0.183009 3.4926
-0.691548 0.181322 3.4604
-0.691278 0.183009 3.4926
-0.678262 0.181322 3.4604
-0.665331 0.179624 3.428
-0.65875 0.179624 3.428
-0.652169 0.179624 3.428
-0.645588 0.179624 3.428
-0.645047 0.181322 3.4604
-0.638403 0.181322 3.4604
-0.63176 0.181322 3.4604
-0.625117 0.181322 3.4604
-0.624229 0.183009 3.4926
-0.611831 0.181322 3.4604
-0.610819 0.183009 3.4926
-0.604114 0.183009 3.4926
-0.597409 0.183009 3.4926
-0.590704 0.183009 3.4926
-0.584 0.183009 3.4926
-0.577295 0.183009 3.4926
-0.57059 0.183009 3.4926
-0.563885 0.183009 3.4926
-0.55718 0.183009 3.4926
-0.550475 0.183009 3.4926
-0.54377 0.183009 3.4926
-0.532114 0.181322 3.4604
-0.53036 0.183009 3.4926
-0.518827 0.181322 3.4604
-0.512184 0.181322 3.4604
-0.505541 0.181322 3.4604
-0.498898 0.181322 3.4604
-0.492255 0.181322 3.4604
-0.485612 0.181322 3.4604
-0.478969 0.181322 3.4604
-0.476721 0.183009 3.4926
-0.470016 0.183009 3.4926
-0.459039 0.181322 3.4604
-0.452396 0.181322 3.4604
-0.445753 0.181322 3.4604
-0.434998 0.179624 3.428
-0.428418 0.179624 3.428
-0.421837 0.179624 3.428
-0.415256 0.179624 3.428
-0.412537 0.181322 3.4604
-0.409671 0.183009 3.4926
-0.399251 0.181322 3.4604
-0.392608 0.181322 3.4604
-0.385965 0.181322 3.4604
-0.382852 0.183009 3.4926
-0.376147 0.183009 3.4926
-0.369442 0.183009 3.4926
-0.362737 0.183009 3.4926
-0.356032 0.183009 3.4926
-0.349327 0.183009 3.4926
-0.335917 0.183009 3.4926
-0.329212 0.183009 3.4926
-0.309097 0.183009 3.4926
-0.302392 0.183009 3.4926
-0.295687 0.183009 3.4926
-0.262163 0.183009 3.4926
-0.168294 0.183009 3.4926
-0.160099 0.181322 3.4604
-0.153456 0.181322 3.4604
-0.146813 0.181322 3.4604
-0.14017 0.181322 3.4604
-0.133526 0.181322 3.4604
-0.126883 0.181322 3.4604
-0.12024 0.181322 3.4604
-0.114654 0.183009 3.4926
-0.106954 0.181322 3.4604
-0.100311 0.181322 3.4604
-0.0927908 0.179624 3.428
-0.0862099 0.179624 3.428
-0.0796289 0.179624 3.428
-0.073048 0.179624 3.428
-0.0664671 0.179624 3.428
-0.0598862 0.179624 3.428
-0.0533053 0.179624 3.428
-0.0467244 0.179624 3.428
-0.0401434 0.179624 3.428
-0.0335625 0.179624 3.428
-0.0269816 0.179624 3.428
-0.0204007 0.179624 3.428
-0.0138198 0.179624 3.428
-0.00737526 0.183009 3.4926
-0.00067033 0.183009 3.4926
0.0060346 0.183009 3.4926
0.0126221 0.181322 3.4604
0.0194445 0.183009 3.4926
0.0259083 0.181322 3.4604
0.0325514 0.181322 3.4604
0.0388276 0.179624 3.428
0.0454085 0.179624 3.428
0.0524808 0.181322 3.4604
0.0591239 0.181322 3.4604
0.065767 0.181322 3.4604
0.0724101 0.181322 3.4604
0.0790533 0.181322 3.4604
0.0856964 0.181322 3.4604
0.0923395 0.181322 3.4604
0.0980558 0.179624 3.428
0.104637 0.179624 3.428
0.111218 0.179624 3.428
0.117799 0.179624 3.428
0.124379 0.179624 3.428
0.13096 0.179624 3.428
0.137541 0.179624 3.428
0.144122 0.179624 3.428
0.150703 0.179624 3.428
0.157284 0.179624 3.428
0.163865 0.179624 3.428
0.170446 0.179624 3.428
0.177027 0.179624 3.428
0.183608 0.179624 3.428
0.190189 0.179624 3.428
0.19677 0.179624 3.428
0.20335 0.179624 3.428
0.209931 0.179624 3.428
0.214542 0.17799 3.3968
0.221063 0.17799 3.3968
0.227584 0.17799 3.3968
0.234105 0.17799 3.3968
0.238501 0.176418 3.3668
0.244964 0.176418 3.3668
0.251428 0.176418 3.3668
0.257891 0.176418 3.3668
0.264354 0.176418 3.3668
0.270818 0.176418 3.3668
0.277281 0.176418 3.3668
0.283745 0.176418 3.3668
0.290208 0.176418 3.3668
0.299315 0.17799 3.3968
0.305836 0.17799 3.3968
0.306821 0.174835 3.3366
0.316062 0.176418 3.3668
0.322525 0.176418 3.3668
0.328989 0.176418 3.3668
0.335452 0.176418 3.3668
0.344962 0.17799 3.3968
0.351483 0.17799 3.3968
0.358004 0.17799 3.3968
0.367873 0.179624 3.428
0.374454 0.179624 3.428
0.384637 0.181322 3.4604
0.39128 0.181322 3.4604
0.394197 0.179624 3.428
0.400778 0.179624 3.428
0.407359 0.179624 3.428
0.41394 0.179624 3.428
0.420521 0.179624 3.428
0.427102 0.179624 3.428
0.433683 0.179624 3.428
0.440264 0.179624 3.428
0.446844 0.179624 3.428
0.453425 0.179624 3.428
0.464354 0.181322 3.4604
0.470997 0.181322 3.4604
0.47764 0.181322 3.4604
0.479749 0.179624 3.428
0.490927 0.181322 3.4604
0.49757 0.181322 3.4604
0.504213 0.181322 3.4604
0.506073 0.179624 3.428
0.512654 0.179624 3.428
0.519235 0.179624 3.428
0.530785 0.181322 3.4604
0.537428 0.181322 3.4604
0.534072 0.17799 3.3968
0.545558 0.179624 3.428
0.552139 0.179624 3.428
0.55872 0.179624 3.428
0.565301 0.179624 3.428
0.571882 0.179624 3.428
0.578463 0.179624 3.428
0.585044 0.179624 3.428
0.591625 0.179624 3.428
0.598206 0.179624 3.428
0.604786 0.179624 3.428
0.611367 0.179624 3.428
0.617948 0.179624 3.428
0.624529 0.179624 3.428
0.63111 0.179624 3.428
0.637691 0.179624 3.428
0.644272 0.179624 3.428
0.650853 0.179624 3.428
0.65145 0.17799 3.3968
0.657971 0.17799 3.3968
0.664492 0.17799 3.3968
0.671013 0.17799 3.3968
0.677534 0.17799 3.3968
0.678014 0.176418 3.3668
0.684477 0.176418 3.3668
0.697097 0.17799 3.3968
0.703618 0.17799 3.3968
0.710139 0.17799 3.3968
0.71666 0.17799 3.3968
0.729824 0.179624 3.428
0.736405 0.179624 3.428
0.742986 0.179624 3.428
0.749567 0.179624 3.428
0.756148 0.179624 3.428
0.762728 0.179624 3.428
0.762307 0.17799 3.3968
0.768829 0.17799 3.3968
0.775349 0.17799 3.3968
0.781871 0.17799 3.3968
0.788392 0.17799 3.3968
0.809796 0.181322 3.4604
0.808795 0.179624 3.428
0.815376 0.179624 3.428
0.821957 0.179624 3.428
0.828538 0.179624 3.428
0.827518 0.17799 3.3968
0.834039 0.17799 3.3968
0.84056 0.17799 3.3968
0.847081 0.17799 3.3968
0.861442 0.179624 3.428
0.868023 0.179624 3.428
0.874604 0.179624 3.428
0.881185 0.179624 3.428
0.879686 0.17799 3.3968
0.886207 0.17799 3.3968
0.884843 0.176418 3.3668
0.891307 0.176418 3.3668
0.89777 0.176418 3.3668
0.904234 0.176418 3.3668
0.910697 0.176418 3.3668
0.917161 0.176418 3.3668
0.931854 0.17799 3.3968
0.938375 0.17799 3.3968
0.944896 0.17799 3.3968
0.951417 0.17799 3.3968
0.949478 0.176418 3.3668
0.955941 0.176418 3.3668
0.962405 0.176418 3.3668
0.968868 0.176418 3.3668
0.984022 0.17799 3.3968
0.990543 0.17799 3.3968
0.988258 0.176418 3.3668
1.00359 0.17799 3.3968
1.01011 0.17799 3.3968
1.01663 0.17799 3.3968
1.02315 0.17799 3.3968
1.02967 0.17799 3.3968
1.03619 0.17799 3.3968
1.04271 0.17799 3.3968
1.04923 0.17799 3.3968
1.05575 0.17799 3.3968
1.06227 0.17799 3.3968
1.05936 0.176418 3.3668
1.06582 0.176418 3.3668
1.09177 0.179624 3.428
1.09836 0.179624 3.428
1.10494 0.179624 3.428
1.11152 0.179624 3.428
1.1181 0.179624 3.428
1.13531 0.181322 3.4604
1.13126 0.179624 3.428
1.13784 0.179624 3.428
1.13401 0.17799 3.3968
1.14053 0.17799 3.3968
1.13692 0.176418 3.3668
1.14338 0.176418 3.3668
1.16009 0.17799 3.3968
1.15631 0.176418 3.3668
1.15234 0.174835 3.3366
1.16923 0.176418 3.3668
1.15461 0.173253 3.3064
1.16095 0.173253 3.3064
1.1673 0.173253 3.3064
1.17365 0.173253 3.3064
0.820498 0.119187 2.2746
0.824865 0.119187 2.2746
0.824127 0.118454 2.2606
0.828467 0.118454 2.2606
0.832807 0.118454 2.2606
0.831962 0.11772 2.2466
0.836275 0.11772 2.2466
0.835724 0.117039 2.2336
0.840012 0.117039 2.2336
0.8443 0.117039 2.2336
0.848588 0.117039 2.2336
0.852876 0.117039 2.2336
0.851791 0.116305 2.2196
0.856052 0.116305 2.2196
0.860313 0.116305 2.2196
0.864574 0.116305 2.2196
0.863825 0.115635 2.2068
0.868062 0.115635 2.2068
0.872298 0.115635 2.2068
0.876535 0.115635 2.2068
0.880771 0.115635 2.2068
0.885008 0.115635 2.2068
0.889244 0.115635 2.2068
0.893481 0.115635 2.2068
0.897717 0.115635 2.2068
0.901954 0.115635 2.2068
0.90619 0.115635 2.2068
0.910427 0.115635 2.2068
0.919969 0.116305 2.2196
0.92423 0.116305 2.2196
0.923136 0.115635 2.2068
0.927373 0.115635 2.2068
1.44049 0.17799 3.3968
1.44701 0.17799 3.3968
1.45354 0.17799 3.3968
1.46006 0.17799 3.3968
1.48005 0.179624 3.428
1.4731 0.17799 3.3968
1.49321 0.179624 3.428
1.49979 0.179624 3.428
1.50637 0.179624 3.428
1.51295 0.179624 3.428
1.51953 0.179624 3.428
1.52611 0.179624 3.428
1.5327 0.179624 3.428
1.52527 0.17799 3.3968
1.53179 0.17799 3.3968
1.56711 0.181322 3.4604
0.959324 0.109148 2.083
0.957865 0.108529 2.0712
0.961842 0.108529 2.0712
0.965818 0.108529 2.0712
0.964737 0.107963 2.0604
0.97377 0.108529 2.0712
0.972648 0.107963 2.0604
0.976604 0.107963 2.0604
0.980559 0.107963 2.0604
0.978876 0.107345 2.0486
0.982809 0.107345 2.0486
1.46836 0.159105 3.0364
1.46215 0.157805 3.0116
1.46793 0.157805 3.0116
1.47371 0.157805 3.0116
1.4679 0.156569 2.988
1.47364 0.156569 2.988
1.47937 0.156569 2.988
1.47278 0.155269 2.9632
1.45542 0.152848 2.917
1.4497 0.151664 2.8944
1.45526 0.151664 2.8944
1.44941 0.15048 2.8718
1.44398 0.149348 2.8502
1.43857 0.148227 2.8288
1.43297 0.147095 2.8072
1.42729 0.145963 2.7856
1.42215 0.144894 2.7652
1.42746 0.144894 2.7652
1.4222 0.143825 2.7448
1.42746 0.143825 2.7448
1.42209 0.142756 2.7244
1.42732 0.142756 2.7244
1.42235 0.14174 2.705
1.4173 0.140723 2.6856
1.41218 0.139707 2.6662
1.4173 0.139707 2.6662
1.41207 0.13869 2.6468
1.41715 0.13869 2.6468
1.42223 0.13869 2.6468
1.42731 0.13869 2.6468
1.43239 0.13869 2.6468
1.43747 0.13869 2.6468
1.44255 0.13869 2.6468
1.44764 0.13869 2.6468
1.45272 0.13869 2.6468
1.4578 0.13869 2.6468
1.46288 0.13869 2.6468
1.46796 0.13869 2.6468
1.47304 0.13869 2.6468
1.47812 0.13869 2.6468
-1.91783 0.184509 3.3968
-1.91131 0.184509 3.3968
-1.92229 0.186204 3.428
-1.89827 0.184509 3.3968
-1.89175 0.184509 3.3968
-1.88523 0.184509 3.3968
-1.87871 0.184509 3.3968
-1.87218 0.184509 3.3968
-1.86566 0.184509 3.3968
-1.87622 0.186204 3.428
-1.86964 0.186204 3.428
-1.86306 0.186204 3.428
-1.83958 0.184509 3.3968
-1.80057 0.181239 3.3366
-1.79417 0.181239 3.3366
-1.77158 0.179599 3.3064
-1.76523 0.179599 3.3064
-1.75889 0.179599 3.3064
-1.75254 0.179599 3.3064
-1.76214 0.181239 3.3366
-1.75573 0.181239 3.3366
-1.74933 0.181239 3.3366
-1.74292 0.181239 3.3366
-1.75224 0.18288 3.3668
-1.76133 0.184509 3.3968
-1.75481 0.184509 3.3968
-1.74829 0.184509 3.3968
-1.75776 0.186204 3.428
-1.73524 0.184509 3.3968
-1.7446 0.186204 3.428
-1.73802 0.186204 3.428
-1.73144 0.186204 3.428
-1.70916 0.184509 3.3968
-1.6876 0.18288 3.3668
-1.69612 0.184509 3.3968
-1.70512 0.186204 3.428
-1.68308 0.184509 3.3968
-1.69195 0.186204 3.428
-1.67003 0.184509 3.3968
-1.67879 0.186204 3.428
-1.67221 0.186204 3.428
-1.66563 0.186204 3.428
-1.65905 0.186204 3.428
-1.65247 0.186204 3.428
-1.63091 0.184509 3.3968
-1.63931 0.186204 3.428
-1.66349 0.189713 3.4926
-1.65679 0.189713 3.4926
-1.65008 0.189713 3.4926
-1.64338 0.189713 3.4926
-1.63667 0.189713 3.4926
-1.61494 0.187964 3.4604
-1.59324 0.186204 3.428
-1.58666 0.186204 3.428
-1.58008 0.186204 3.428
-1.55918 0.184509 3.3968
-1.55265 0.184509 3.3968
-1.57508 0.187964 3.4604
-1.56844 0.187964 3.4604
-1.54717 0.186204 3.428
-1.55515 0.187964 3.4604
-1.54851 0.187964 3.4604
-1.54187 0.187964 3.4604
-1.53522 0.187964 3.4604
-1.52858 0.187964 3.4604
-1.50769 0.186204 3.428
-1.48744 0.184509 3.3968
-1.49453 0.186204 3.428
-1.48795 0.186204 3.428
-1.48136 0.186204 3.428
-1.46136 0.184509 3.3968
-1.45484 0.184509 3.3968
-1.43553 0.18288 3.3668
-1.4418 0.184509 3.3968
-1.43528 0.184509 3.3968
-1.42876 0.184509 3.3968
-1.42223 0.184509 3.3968
-1.41571 0.184509 3.3968
-1.42214 0.186204 3.428
-1.42893 0.187964 3.4604
-1.42229 0.187964 3.4604
-1.41565 0.187964 3.4604
-1.409 0.187964 3.4604
-1.41541 0.189713 3.4926
-1.40871 0.189713 3.4926
-1.402 0.189713 3.4926
-1.3953 0.189713 3.4926
-1.38189 0.189713 3.4926
-1.37518 0.189713 3.4926
-1.35586 0.187964 3.4604
-1.34922 0.187964 3.4604
-1.34257 0.187964 3.4604
-1.33593 0.187964 3.4604
-1.31684 0.186204 3.428
-1.31026 0.186204 3.428
-1.30368 0.186204 3.428
-1.2971 0.186204 3.428
-1.30272 0.187964 3.4604
-1.28394 0.186204 3.428
-1.26573 0.184509 3.3968
-1.27077 0.186204 3.428
-1.26419 0.186204 3.428
-1.25761 0.186204 3.428
-1.25103 0.186204 3.428
-1.24445 0.186204 3.428
-1.23787 0.186204 3.428
-1.24293 0.187964 3.4604
-1.22471 0.186204 3.428
-1.21813 0.186204 3.428
-1.223 0.187964 3.4604
-1.21635 0.187964 3.4604
-1.19838 0.186204 3.428
-1.1918 0.186204 3.428
-1.19643 0.187964 3.4604
-1.18978 0.187964 3.4604
-1.18314 0.187964 3.4604
-1.1765 0.187964 3.4604
-1.16985 0.187964 3.4604
-1.15232 0.186204 3.428
-1.14574 0.186204 3.428
-1.13916 0.186204 3.428
-1.12227 0.184509 3.3968
-1.11575 0.184509 3.3968
-1.10923 0.184509 3.3968
-1.09297 0.18288 3.3668
-1.09618 0.184509 3.3968
-1.08966 0.184509 3.3968
-1.09309 0.186204 3.428
-1.08651 0.186204 3.428
-1.07993 0.186204 3.428
-1.07335 0.186204 3.428
-1.06677 0.186204 3.428
-1.07021 0.187964 3.4604
-1.07346 0.189713 3.4926
-1.06675 0.189713 3.4926
-1.05028 0.187964 3.4604
-1.05334 0.189713 3.4926
-1.04664 0.189713 3.4926
-1.03035 0.187964 3.4604
-1.0237 0.187964 3.4604
-1.01706 0.187964 3.4604
-1.01042 0.187964 3.4604
-1.00377 0.187964 3.4604
-0.997132 0.187964 3.4604
-0.981215 0.186204 3.428
-0.974634 0.186204 3.428
-0.968053 0.186204 3.428
-0.970559 0.187964 3.4604
-0.954891 0.186204 3.428
-0.957273 0.187964 3.4604
-0.95063 0.187964 3.4604
-0.943987 0.187964 3.4604
-0.937344 0.187964 3.4604
-0.921986 0.186204 3.428
-0.915405 0.186204 3.428
-0.908825 0.186204 3.428
-0.902244 0.186204 3.428
-0.895663 0.186204 3.428
-0.88099 0.184509 3.3968
-0.874469 0.184509 3.3968
-0.867948 0.184509 3.3968
-0.861427 0.184509 3.3968
-0.847355 0.18288 3.3668
-0.840892 0.18288 3.3668
-0.834428 0.18288 3.3668
-0.843015 0.186204 3.428
-0.828822 0.184509 3.3968
-0.822301 0.184509 3.3968
-0.81578 0.184509 3.3968
-0.809259 0.184509 3.3968
-0.802737 0.184509 3.3968
-0.796216 0.184509 3.3968
-0.789695 0.184509 3.3968
-0.783174 0.184509 3.3968
-0.776653 0.184509 3.3968
-0.770132 0.184509 3.3968
-0.763611 0.184509 3.3968
-0.750404 0.18288 3.3668
-0.750569 0.184509 3.3968
-0.744048 0.184509 3.3968
-0.737527 0.184509 3.3968
-0.72455 0.18288 3.3668
-0.724485 0.184509 3.3968
-0.717964 0.184509 3.3968
-0.711443 0.184509 3.3968
-0.704922 0.184509 3.3968
-0.704816 0.186204 3.428
-0.704835 0.187964 3.4604
-0.698191 0.187964 3.4604
-0.691548 0.187964 3.4604
-0.678492 0.186204 3.428
-0.671911 0.186204 3.428
-0.659275 0.184509 3.3968
-0.652754 0.184509 3.3968
-0.646233 0.184509 3.3968
-0.639712 0.184509 3.3968
-0.633191 0.184509 3.3968
-0.62667 0.184509 3.3968
-0.625845 0.186204 3.428
-0.619264 0.186204 3.428
-0.612683 0.186204 3.428
-0.606102 0.186204 3.428
-0.605188 0.187964 3.4604
-0.592941 0.186204 3.428
-0.58636 0.186204 3.428
-0.585258 0.187964 3.4604
-0.578615 0.187964 3.4604
-0.571972 0.187964 3.4604
-0.565329 0.187964 3.4604
-0.558686 0.187964 3.4604
-0.552043 0.187964 3.4604
-0.550475 0.189713 3.4926
-0.538757 0.187964 3.4604
-0.532114 0.187964 3.4604
-0.52547 0.187964 3.4604
-0.518827 0.187964 3.4604
-0.507389 0.186204 3.428
-0.500808 0.186204 3.428
-0.494227 0.186204 3.428
-0.487646 0.186204 3.428
-0.481065 0.186204 3.428
-0.474484 0.186204 3.428
-0.467903 0.186204 3.428
-0.461322 0.186204 3.428
-0.454741 0.186204 3.428
-0.44816 0.186204 3.428
-0.441579 0.186204 3.428
-0.434998 0.186204 3.428
-0.424518 0.184509 3.3968
-0.421837 0.186204 3.428
-0.415256 0.186204 3.428
-0.408675 0.186204 3.428
-0.402094 0.186204 3.428
-0.395513 0.186204 3.428
-0.388932 0.186204 3.428
-0.382351 0.186204 3.428
-0.37235 0.184509 3.3968
-0.365829 0.184509 3.3968
-0.362608 0.186204 3.428
-0.352787 0.184509 3.3968
-0.349447 0.186204 3.428
-0.342866 0.186204 3.428
-0.342622 0.189713 3.4926
-0.33282 0.187964 3.4604
-0.326177 0.187964 3.4604
-0.319534 0.187964 3.4604
-0.312891 0.187964 3.4604
-0.306248 0.187964 3.4604
-0.299604 0.187964 3.4604
-0.292961 0.187964 3.4604
-0.288982 0.189713 3.4926
-0.282278 0.189713 3.4926
-0.275573 0.189713 3.4926
-0.266389 0.187964 3.4604
-0.259746 0.187964 3.4604
-0.253103 0.187964 3.4604
-0.244152 0.186204 3.428
-0.235409 0.184509 3.3968
-0.228888 0.184509 3.3968
-0.224409 0.186204 3.428
-0.219887 0.187964 3.4604
-0.213244 0.187964 3.4604
-0.206601 0.187964 3.4604
-0.201818 0.189713 3.4926
-0.195113 0.189713 3.4926
-0.188408 0.189713 3.4926
-0.178343 0.186204 3.428
-0.171762 0.186204 3.428
-0.165181 0.186204 3.428
-0.157156 0.184509 3.3968
-0.150635 0.184509 3.3968
-0.144114 0.184509 3.3968
-0.137593 0.184509 3.3968
-0.131072 0.184509 3.3968
-0.124551 0.184509 3.3968
-0.11803 0.184509 3.3968
-0.111509 0.184509 3.3968
-0.104988 0.184509 3.3968
-0.0984673 0.184509 3.3968
-0.0919462 0.184509 3.3968
-0.0854252 0.184509 3.3968
-0.0796289 0.186204 3.428
-0.073048 0.186204 3.428
-0.0658621 0.184509 3.3968
-0.0593411 0.184509 3.3968
-0.0528201 0.184509 3.3968
-0.0462991 0.184509 3.3968
-0.0397781 0.184509 3.3968
-0.033257 0.184509 3.3968
-0.026736 0.184509 3.3968
-0.020215 0.184509 3.3968
-0.0138198 0.186204 3.428
-0.00723885 0.186204 3.428
-0.000657931 0.186204 3.428
0.00592299 0.186204 3.428
0.0125039 0.186204 3.428
0.0192652 0.187964 3.4604
0.0256657 0.186204 3.428
0.0322467 0.186204 3.428
0.0384742 0.184509 3.3968
0.0449952 0.184509 3.3968
0.0519894 0.186204 3.428
0.0585703 0.186204 3.428
0.0651512 0.186204 3.428
0.0717322 0.186204 3.428
0.0783131 0.186204 3.428
0.084894 0.186204 3.428
0.0914749 0.186204 3.428
0.0971634 0.184509 3.3968
0.103684 0.184509 3.3968
0.109232 0.18288 3.3668
0.115696 0.18288 3.3668
0.122159 0.18288 3.3668
0.129768 0.184509 3.3968
0.136289 0.184509 3.3968
0.142811 0.184509 3.3968
0.149332 0.184509 3.3968
0.155853 0.184509 3.3968
0.162374 0.184509 3.3968
0.168895 0.184509 3.3968
0.173866 0.18288 3.3668
0.18033 0.18288 3.3668
0.186793 0.18288 3.3668
0.193257 0.18288 3.3668
0.2015 0.184509 3.3968
0.206184 0.18288 3.3668
0.212647 0.18288 3.3668
0.21911 0.18288 3.3668
0.225574 0.18288 3.3668
0.232037 0.18288 3.3668
0.236361 0.181239 3.3366
0.242767 0.181239 3.3366
0.249172 0.181239 3.3366
0.255578 0.181239 3.3366
0.264354 0.18288 3.3668
0.270818 0.18288 3.3668
0.274794 0.181239 3.3366
0.281199 0.181239 3.3366
0.287605 0.181239 3.3366
0.296672 0.18288 3.3668
0.300416 0.181239 3.3366
0.306821 0.181239 3.3366
0.313227 0.181239 3.3366
0.319632 0.181239 3.3366
0.326038 0.181239 3.3366
0.332443 0.181239 3.3366
0.338849 0.181239 3.3366
0.348379 0.18288 3.3668
0.354842 0.18288 3.3668
0.364525 0.184509 3.3968
0.371046 0.184509 3.3968
0.381035 0.186204 3.428
0.387616 0.186204 3.428
0.394197 0.186204 3.428
0.39713 0.184509 3.3968
0.403651 0.184509 3.3968
0.41394 0.186204 3.428
0.420521 0.186204 3.428
0.423214 0.184509 3.3968
0.429735 0.184509 3.3968
0.436256 0.184509 3.3968
0.442777 0.184509 3.3968
0.449298 0.184509 3.3968
0.460006 0.186204 3.428
0.466587 0.186204 3.428
0.473168 0.186204 3.428
0.475383 0.184509 3.3968
0.48633 0.186204 3.428
0.492911 0.186204 3.428
0.499492 0.186204 3.428
0.501467 0.184509 3.3968
0.507988 0.184509 3.3968
0.514509 0.184509 3.3968
0.525815 0.186204 3.428
0.532396 0.186204 3.428
0.529355 0.18288 3.3668
0.535818 0.18288 3.3668
0.542282 0.18288 3.3668
0.548745 0.18288 3.3668
0.560156 0.184509 3.3968
0.561672 0.18288 3.3668
0.568135 0.18288 3.3668
0.579719 0.184509 3.3968
0.58624 0.184509 3.3968
0.587526 0.18288 3.3668
0.593989 0.18288 3.3668
0.605803 0.184509 3.3968
0.612324 0.184509 3.3968
0.613379 0.18288 3.3668
0.619843 0.18288 3.3668
0.631887 0.184509 3.3968
0.638408 0.184509 3.3968
0.644929 0.184509 3.3968
0.645697 0.18288 3.3668
0.65216 0.18288 3.3668
0.658623 0.18288 3.3668
0.665087 0.18288 3.3668
0.67155 0.18288 3.3668
0.678014 0.18288 3.3668
0.684477 0.18288 3.3668
0.690941 0.18288 3.3668
0.697404 0.18288 3.3668
0.703867 0.18288 3.3668
0.710331 0.18288 3.3668
0.723181 0.184509 3.3968
0.729702 0.184509 3.3968
0.729721 0.18288 3.3668
0.736185 0.18288 3.3668
0.742648 0.18288 3.3668
0.749111 0.18288 3.3668
0.755575 0.18288 3.3668
0.762038 0.18288 3.3668
0.761608 0.181239 3.3366
0.768014 0.181239 3.3366
0.781429 0.18288 3.3668
0.787892 0.18288 3.3668
0.794355 0.18288 3.3668
0.800819 0.18288 3.3668
0.807282 0.18288 3.3668
0.806446 0.181239 3.3366
0.820209 0.18288 3.3668
0.826673 0.18288 3.3668
0.833136 0.18288 3.3668
0.839599 0.18288 3.3668
0.853602 0.184509 3.3968
0.860123 0.184509 3.3968
0.866644 0.184509 3.3968
0.873165 0.184509 3.3968
0.879686 0.184509 3.3968
0.886207 0.184509 3.3968
0.884843 0.18288 3.3668
0.891307 0.18288 3.3668
0.89777 0.18288 3.3668
0.896123 0.181239 3.3366
0.902528 0.181239 3.3366
0.917161 0.18288 3.3668
0.923624 0.18288 3.3668
0.930088 0.18288 3.3668
0.936551 0.18288 3.3668
0.943014 0.18288 3.3668
0.949478 0.18288 3.3668
0.955941 0.18288 3.3668
0.962405 0.18288 3.3668
0.968868 0.18288 3.3668
0.975331 0.18288 3.3668
0.981795 0.18288 3.3668
0.988258 0.18288 3.3668
0.994722 0.18288 3.3668
1.00119 0.18288 3.3668
1.00765 0.18288 3.3668
1.01411 0.18288 3.3668
1.02058 0.18288 3.3668
1.02704 0.18288 3.3668
1.0335 0.18288 3.3668
1.03064 0.181239 3.3366
1.04643 0.18288 3.3668
1.05289 0.18288 3.3668
1.04985 0.181239 3.3366
1.06582 0.18288 3.3668
1.08184 0.184509 3.3968
1.08836 0.184509 3.3968
1.09488 0.184509 3.3968
1.11152 0.186204 3.428
1.10792 0.184509 3.3968
1.12468 0.186204 3.428
1.12096 0.184509 3.3968
1.12748 0.184509 3.3968
1.13401 0.184509 3.3968
1.13045 0.18288 3.3668
1.12672 0.181239 3.3366
1.13312 0.181239 3.3366
1.14984 0.18288 3.3668
1.14594 0.181239 3.3366
1.14191 0.179599 3.3064
1.14826 0.179599 3.3064
1.15461 0.179599 3.3064
1.16095 0.179599 3.3064
1.15706 0.178024 3.2774
1.16335 0.178024 3.2774
0.825548 0.124314 2.2886
0.824865 0.123553 2.2746
0.824127 0.122793 2.2606
0.828467 0.122793 2.2606
0.832807 0.122793 2.2606
0.831962 0.122032 2.2466
0.836275 0.122032 2.2466
0.835724 0.121326 2.2336
0.840012 0.121326 2.2336
0.8443 0.121326 2.2336
0.848588 0.121326 2.2336
0.852876 0.121326 2.2336
0.851791 0.120566 2.2196
0.856052 0.120566 2.2196
0.860313 0.120566 2.2196
0.864574 0.120566 2.2196
0.863825 0.11987 2.2068
0.868062 0.11987 2.2068
0.872298 0.11987 2.2068
0.876535 0.11987 2.2068
0.880771 0.11987 2.2068
0.885008 0.11987 2.2068
0.889244 0.11987 2.2068
0.893481 0.11987 2.2068
0.897717 0.11987 2.2068
0.901954 0.11987 2.2068
0.90619 0.11987 2.2068
0.910427 0.11987 2.2068
0.914663 0.11987 2.2068
0.92423 0.120566 2.2196
0.928491 0.120566 2.2196
0.927373 0.11987 2.2068
1.39581 0.179599 3.3064
1.41496 0.181239 3.3366
1.43423 0.18288 3.3668
1.42778 0.181239 3.3366
1.43418 0.181239 3.3366
1.45363 0.18288 3.3668
1.4731 0.184509 3.3968
1.47962 0.184509 3.3968
1.48614 0.184509 3.3968
1.49266 0.184509 3.3968
1.49918 0.184509 3.3968
1.49241 0.18288 3.3668
1.49887 0.18288 3.3668
1.50533 0.18288 3.3668
1.5118 0.18288 3.3668
1.53179 0.184509 3.3968
0.959324 0.113146 2.083
0.957865 0.112505 2.0712
0.961842 0.112505 2.0712
0.965818 0.112505 2.0712
0.969794 0.112505 2.0712
0.97377 0.112505 2.0712
0.972648 0.111918 2.0604
0.976604 0.111918 2.0604
0.980559 0.111918 2.0604
0.984514 0.111918 2.0604
0.982809 0.111277 2.0486
0.986742 0.111277 2.0486
1.46836 0.164933 3.0364
1.46215 0.163586 3.0116
1.48002 0.164933 3.0364
1.47371 0.163586 3.0116
1.4679 0.162304 2.988
1.48528 0.163586 3.0116
1.47937 0.162304 2.988
1.47278 0.160957 2.9632
1.4672 0.159729 2.9406
1.46102 0.158447 2.917
1.45526 0.15722 2.8944
1.46081 0.15722 2.8944
1.44398 0.154819 2.8502
1.43857 0.153656 2.8288
1.43297 0.152483 2.8072
1.42729 0.15131 2.7856
1.43264 0.15131 2.7856
1.42746 0.150202 2.7652
1.4222 0.149094 2.7448
1.42746 0.149094 2.7448
1.42209 0.147986 2.7244
1.42732 0.147986 2.7244
1.42235 0.146932 2.705
1.4173 0.145878 2.6856
1.41218 0.144824 2.6662
1.4173 0.144824 2.6662
1.41207 0.14377 2.6468
1.41715 0.14377 2.6468
1.43265 0.144824 2.6662
1.43777 0.144824 2.6662
1.43239 0.14377 2.6468
1.44801 0.144824 2.6662
1.44255 0.14377 2.6468
1.45825 0.144824 2.6662
1.45272 0.14377 2.6468
1.4578 0.14377 2.6468
1.46288 0.14377 2.6468
1.46796 0.14377 2.6468
1.47304 0.14377 2.6468
1.47812 0.14377 2.6468
-1.90089 0.189342 3.3668
-1.86044 0.185945 3.3064
-1.88797 0.189342 3.3668
-1.8815 0.189342 3.3668
-1.87504 0.189342 3.3668
-1.85182 0.187644 3.3366
-1.84541 0.187644 3.3366
-1.83901 0.187644 3.3366
-1.8326 0.187644 3.3366
-1.82619 0.187644 3.3366
-1.83626 0.189342 3.3668
-1.81338 0.187644 3.3366
-1.79062 0.185945 3.3064
-1.78428 0.185945 3.3064
-1.77793 0.185945 3.3064
-1.77158 0.185945 3.3064
-1.76523 0.185945 3.3064
-1.74346 0.184314 3.2774
-1.75254 0.185945 3.3064
-1.74619 0.185945 3.3064
-1.75573 0.187644 3.3366
-1.74933 0.187644 3.3366
-1.72715 0.185945 3.3064
-1.73652 0.187644 3.3366
-1.74577 0.189342 3.3668
-1.75481 0.191029 3.3968
-1.73284 0.189342 3.3668
-1.72638 0.189342 3.3668
-1.71992 0.189342 3.3668
-1.72872 0.191029 3.3968
-1.7222 0.191029 3.3968
-1.70053 0.189342 3.3668
-1.67887 0.187644 3.3366
-1.6876 0.189342 3.3668
-1.69612 0.191029 3.3968
-1.6896 0.191029 3.3968
-1.68308 0.191029 3.3968
-1.67655 0.191029 3.3968
-1.67003 0.191029 3.3968
-1.66351 0.191029 3.3968
-1.67221 0.192784 3.428
-1.66563 0.192784 3.428
-1.64395 0.191029 3.3968
-1.63743 0.191029 3.3968
-1.6165 0.189342 3.3668
-1.62439 0.191029 3.3968
-1.63273 0.192784 3.428
-1.64151 0.194606 3.4604
-1.61956 0.192784 3.428
-1.61298 0.192784 3.428
-1.6064 0.192784 3.428
-1.59982 0.192784 3.428
-1.59324 0.192784 3.428
-1.57222 0.191029 3.3968
-1.5657 0.191029 3.3968
-1.55918 0.191029 3.3968
-1.55265 0.191029 3.3968
-1.56034 0.192784 3.428
-1.55375 0.192784 3.428
-1.54717 0.192784 3.428
-1.54059 0.192784 3.428
-1.53401 0.192784 3.428
-1.52743 0.192784 3.428
-1.52085 0.192784 3.428
-1.51427 0.192784 3.428
-1.49397 0.191029 3.3968
-1.46108 0.187644 3.3366
-1.48092 0.191029 3.3968
-1.4744 0.191029 3.3968
-1.46788 0.191029 3.3968
-1.46136 0.191029 3.3968
-1.44199 0.189342 3.3668
-1.43553 0.189342 3.3668
-1.42906 0.189342 3.3668
-1.43528 0.191029 3.3968
-1.41614 0.189342 3.3668
-1.42223 0.191029 3.3968
-1.41571 0.191029 3.3968
-1.40919 0.191029 3.3968
-1.41556 0.192784 3.428
-1.42229 0.194606 3.4604
-1.40239 0.192784 3.428
-1.409 0.194606 3.4604
-1.40236 0.194606 3.4604
-1.39572 0.194606 3.4604
-1.402 0.196417 3.4926
-1.3953 0.196417 3.4926
-1.38859 0.196417 3.4926
-1.38189 0.196417 3.4926
-1.37518 0.196417 3.4926
-1.35586 0.194606 3.4604
-1.34922 0.194606 3.4604
-1.33 0.192784 3.428
-1.32342 0.192784 3.428
-1.30486 0.191029 3.3968
-1.29834 0.191029 3.3968
-1.29181 0.191029 3.3968
-1.27394 0.189342 3.3668
-1.26748 0.189342 3.3668
-1.26101 0.189342 3.3668
-1.25455 0.189342 3.3668
-1.24809 0.189342 3.3668
-1.25269 0.191029 3.3968
-1.24617 0.191029 3.3968
-1.2287 0.189342 3.3668
-1.22223 0.189342 3.3668
-1.2266 0.191029 3.3968
-1.23129 0.192784 3.428
-1.22471 0.192784 3.428
-1.21813 0.192784 3.428
-1.21155 0.192784 3.428
-1.194 0.191029 3.3968
-1.18748 0.191029 3.3968
-1.18096 0.191029 3.3968
-1.18522 0.192784 3.428
-1.17864 0.192784 3.428
-1.17206 0.192784 3.428
-1.1765 0.194606 3.4604
-1.16985 0.194606 3.4604
-1.16321 0.194606 3.4604
-1.14574 0.192784 3.428
-1.13916 0.192784 3.428
-1.12227 0.191029 3.3968
-1.11575 0.191029 3.3968
-1.09943 0.189342 3.3668
-1.09297 0.189342 3.3668
-1.0865 0.189342 3.3668
-1.08004 0.189342 3.3668
-1.07358 0.189342 3.3668
-1.06711 0.189342 3.3668
-1.06065 0.189342 3.3668
-1.05419 0.189342 3.3668
-1.04772 0.189342 3.3668
-1.04126 0.189342 3.3668
-1.04402 0.191029 3.3968
-1.03749 0.191029 3.3968
-1.05028 0.194606 3.4604
-1.04363 0.194606 3.4604
-1.04664 0.196417 3.4926
-1.0207 0.192784 3.428
-1.0237 0.194606 3.4604
-1.00754 0.192784 3.428
-1.00096 0.192784 3.428
-0.994376 0.192784 3.428
-0.987795 0.192784 3.428
-0.972284 0.191029 3.3968
-0.965763 0.191029 3.3968
-0.968053 0.192784 3.428
-0.952721 0.191029 3.3968
-0.9462 0.191029 3.3968
-0.939679 0.191029 3.3968
-0.933158 0.191029 3.3968
-0.935148 0.192784 3.428
-0.928567 0.192784 3.428
-0.913595 0.191029 3.3968
-0.907074 0.191029 3.3968
-0.900553 0.191029 3.3968
-0.894032 0.191029 3.3968
-0.887511 0.191029 3.3968
-0.873209 0.189342 3.3668
-0.866746 0.189342 3.3668
-0.860282 0.189342 3.3668
-0.853819 0.189342 3.3668
-0.847355 0.189342 3.3668
-0.840892 0.189342 3.3668
-0.834428 0.189342 3.3668
-0.827965 0.189342 3.3668
-0.821502 0.189342 3.3668
-0.815038 0.189342 3.3668
-0.808575 0.189342 3.3668
-0.802111 0.189342 3.3668
-0.795648 0.189342 3.3668
-0.789184 0.189342 3.3668
-0.782721 0.189342 3.3668
-0.776258 0.189342 3.3668
-0.769794 0.189342 3.3668
-0.763331 0.189342 3.3668
-0.756867 0.189342 3.3668
-0.750404 0.189342 3.3668
-0.74394 0.189342 3.3668
-0.737477 0.189342 3.3668
-0.724456 0.187644 3.3366
-0.72455 0.189342 3.3668
-0.718087 0.189342 3.3668
-0.711623 0.189342 3.3668
-0.70516 0.189342 3.3668
-0.698696 0.189342 3.3668
-0.692233 0.189342 3.3668
-0.69188 0.191029 3.3968
-0.685359 0.191029 3.3968
-0.678838 0.191029 3.3968
-0.672317 0.191029 3.3968
-0.665796 0.191029 3.3968
-0.659275 0.191029 3.3968
-0.646989 0.189342 3.3668
-0.646233 0.191029 3.3968
-0.639712 0.191029 3.3968
-0.633191 0.191029 3.3968
-0.62667 0.191029 3.3968
-0.620149 0.191029 3.3968
-0.613628 0.191029 3.3968
-0.607107 0.191029 3.3968
-0.600586 0.191029 3.3968
-0.594065 0.191029 3.3968
-0.587544 0.191029 3.3968
-0.581023 0.191029 3.3968
-0.574502 0.191029 3.3968
-0.567981 0.191029 3.3968
-0.56146 0.191029 3.3968
-0.554939 0.191029 3.3968
-0.548418 0.191029 3.3968
-0.541897 0.191029 3.3968
-0.540293 0.192784 3.428
-0.528855 0.191029 3.3968
-0.522334 0.191029 3.3968
-0.515813 0.191029 3.3968
-0.509292 0.191029 3.3968
-0.507389 0.192784 3.428
-0.500808 0.192784 3.428
-0.489728 0.191029 3.3968
-0.483207 0.191029 3.3968
-0.476686 0.191029 3.3968
-0.470165 0.191029 3.3968
-0.463644 0.191029 3.3968
-0.457123 0.191029 3.3968
-0.450602 0.191029 3.3968
-0.444081 0.191029 3.3968
-0.43756 0.191029 3.3968
-0.431039 0.191029 3.3968
-0.424518 0.191029 3.3968
-0.417997 0.191029 3.3968
-0.411476 0.191029 3.3968
-0.404955 0.191029 3.3968
-0.398434 0.191029 3.3968
-0.391913 0.191029 3.3968
-0.388932 0.192784 3.428
-0.378871 0.191029 3.3968
-0.37235 0.191029 3.3968
-0.365829 0.191029 3.3968
-0.359308 0.191029 3.3968
-0.352787 0.191029 3.3968
-0.346266 0.191029 3.3968
-0.339745 0.191029 3.3968
-0.336285 0.192784 3.428
-0.329704 0.192784 3.428
-0.323123 0.192784 3.428
-0.316542 0.192784 3.428
-0.309961 0.192784 3.428
-0.30338 0.192784 3.428
-0.296799 0.192784 3.428
-0.290218 0.192784 3.428
-0.283637 0.192784 3.428
-0.277056 0.192784 3.428
-0.268014 0.191029 3.3968
-0.261493 0.191029 3.3968
-0.254972 0.191029 3.3968
-0.248451 0.191029 3.3968
